# .PCD v0.7 - Point Cloud Data file format
VERSION 0.7
FIELDS x y z
SIZE 4 4 4
TYPE F F F
COUNT 1 1 1
WIDTH 1379
HEIGHT 1
VIEWPOINT 0 0 0 0 1 0 0
POINTS 1379
DATA ascii
-0.00856 0.03424 0.64200002
-0.0073371432 0.03424 0.64200002
-0.0061047622 0.034186669 0.64100003
-0.0048838099 0.034186669 0.64100003
-0.0036628572 0.034186669 0.64100003
-0.0024380954 0.034133337 0.64000005
-0.0012190477 0.034133337 0.64000005
0 0.034133337 0.64000005
0.0012171429 0.034080002 0.63900006
0.0024342858 0.034080002 0.63900006
0.003651429 0.034080002 0.63900006
0.0048685716 0.034080002 0.63900006
0.0060857143 0.034080002 0.63900006
0.0073028579 0.034080002 0.63900006
0.0085066669 0.034026667 0.63800001
0.0097371433 0.034080002 0.63900006
0.010954286 0.034080002 0.63900006
0.012152381 0.034026667 0.63800001
0.013388573 0.034080002 0.63900006
0.014605716 0.034080002 0.63900006
0.015822859 0.034080002 0.63900006
0.017040001 0.034080002 0.63900006
0.018314287 0.034186669 0.64100003
0.019565715 0.03424 0.64200002
0.020788573 0.03424 0.64200002
0.022080002 0.03434667 0.64400005
0.023342859 0.034400001 0.64500004
0.024609523 0.034453336 0.64600003
0.02588 0.034506667 0.64700001
0.027112382 0.034506667 0.64700001
0.028476192 0.034666669 0.65000004
0.029760001 0.03472 0.65100002
0.031095238 0.03482667 0.65300006
0.032339048 0.03482667 0.65300006
-0.018657144 0.036070481 0.65300006
-0.017386667 0.036015239 0.65200001
-0.01612 0.035960004 0.65100002
-0.014857143 0.035904761 0.65000004
-0.013577144 0.035794284 0.648
-0.01232381 0.035739049 0.64700001
-0.011074286 0.035683811 0.64600003
-0.0098285722 0.035628576 0.64500004
-0.0085866675 0.035573337 0.64400005
-0.0073371432 0.035462856 0.64200002
-0.0061142859 0.035462856 0.64200002
-0.0048914286 0.035462856 0.64200002
-0.0036628572 0.035407621 0.64100003
-0.002441905 0.035407621 0.64100003
-0.0012190477 0.035352383 0.64000005
0 0.035352383 0.64000005
0.0012190477 0.035352383 0.64000005
0.0024342858 0.035297148 0.63900006
0.003651429 0.035297148 0.63900006
0.0048685716 0.035297148 0.63900006
0.0060857143 0.035297148 0.63900006
0.0073028579 0.035297148 0.63900006
0.0085200006 0.035297148 0.63900006
0.0097371433 0.035297148 0.63900006
0.010954286 0.035297148 0.63900006
0.012171429 0.035297148 0.63900006
0.013388573 0.035297148 0.63900006
0.014605716 0.035297148 0.63900006
0.01584762 0.035352383 0.64000005
0.017093334 0.035407621 0.64100003
0.018342856 0.035462856 0.64200002
0.019626668 0.035573337 0.64400005
0.020853335 0.035573337 0.64400005
0.022114286 0.035628576 0.64500004
0.023379048 0.035683811 0.64600003
0.02464762 0.035739049 0.64700001
0.02588 0.035739049 0.64700001
0.027238097 0.035904761 0.65000004
0.028520001 0.035960004 0.65100002
0.029805716 0.036015239 0.65200001
0.031190475 0.036180954 0.65500003
0.032438096 0.036180954 0.65500003
-0.019900953 0.037314288 0.65300006
-0.018657144 0.037314288 0.65300006
-0.017386667 0.037257142 0.65200001
-0.01612 0.0372 0.65100002
-0.014880001 0.0372 0.65100002
-0.013619049 0.037142862 0.65000004
-0.012342857 0.037028573 0.648
-0.011091429 0.036971428 0.64700001
-0.0098285722 0.036857143 0.64500004
-0.0085866675 0.036800001 0.64400005
-0.0073600006 0.036800001 0.64400005
-0.0061142859 0.036685713 0.64200002
-0.0048914286 0.036685713 0.64200002
-0.0036685716 0.036685713 0.64200002
-0.002441905 0.036628574 0.64100003
-0.0012209525 0.036628574 0.64100003
0 0.036571428 0.64000005
0.0012190477 0.036571428 0.64000005
0.0024380954 0.036571428 0.64000005
0.0036571429 0.036571428 0.64000005
0.0048685716 0.03651429 0.63900006
0.0060857143 0.03651429 0.63900006
0.0073028579 0.03651429 0.63900006
0.0085200006 0.03651429 0.63900006
0.0097371433 0.03651429 0.63900006
0.010954286 0.03651429 0.63900006
0.012171429 0.03651429 0.63900006
0.013388573 0.03651429 0.63900006
0.014628571 0.036571428 0.64000005
0.01584762 0.036571428 0.64000005
0.017093334 0.036628574 0.64100003
0.018342856 0.036685713 0.64200002
0.019626668 0.036800001 0.64400005
0.020885715 0.036857143 0.64500004
0.022114286 0.036857143 0.64500004
0.023379048 0.036914289 0.64600003
0.02464762 0.036971428 0.64700001
0.02592 0.037028573 0.648
0.027238097 0.037142862 0.65000004
0.028520001 0.0372 0.65100002
0.029805716 0.037257142 0.65200001
0.031190475 0.037428573 0.65500003
0.032438096 0.037428573 0.65500003
-0.018657144 0.038558099 0.65300006
-0.017386667 0.038499046 0.65200001
-0.01612 0.03844 0.65100002
-0.014880001 0.03844 0.65100002
-0.013619049 0.038380954 0.65000004
-0.012380953 0.038380954 0.65000004
-0.011108571 0.038262855 0.648
-0.0098438095 0.038144764 0.64600003
-0.0085866675 0.038026668 0.64400005
-0.0073600006 0.038026668 0.64400005
-0.0061333338 0.038026668 0.64400005
-0.0048914286 0.037908573 0.64200002
-0.0036685716 0.037908573 0.64200002
-0.0024457143 0.037908573 0.64200002
-0.0012209525 0.037849523 0.64100003
0 0.037849523 0.64100003
0.0012190477 0.037790481 0.64000005
0.0024380954 0.037790481 0.64000005
0.0036571429 0.037790481 0.64000005
0.0048761908 0.037790481 0.64000005
0.0060952385 0.037790481 0.64000005
0.0073142857 0.037790481 0.64000005
0.0085200006 0.037731431 0.63900006
0.0097523816 0.037790481 0.64000005
0.010954286 0.037731431 0.63900006
0.012171429 0.037731431 0.63900006
0.013409524 0.037790481 0.64000005
0.014628571 0.037790481 0.64000005
0.01584762 0.037790481 0.64000005
0.01712 0.037908573 0.64200002
0.018342856 0.037908573 0.64200002
0.019626668 0.038026668 0.64400005
0.020885715 0.038085714 0.64500004
0.022114286 0.038085714 0.64500004
0.023379048 0.038144764 0.64600003
0.02464762 0.038203809 0.64700001
0.02592 0.038262855 0.648
0.027280001 0.03844 0.65100002
0.028520001 0.03844 0.65100002
0.029805716 0.038499046 0.65200001
0.031190475 0.038676191 0.65500003
0.032438096 0.038676191 0.65500003
-0.019900953 0.039801907 0.65300006
-0.018657144 0.039801907 0.65300006
-0.017413335 0.039801907 0.65300006
-0.01612 0.03968 0.65100002
-0.014880001 0.03968 0.65100002
-0.01364 0.03968 0.65100002
-0.0124 0.03968 0.65100002
-0.011108571 0.039497141 0.648
-0.0098438095 0.039375238 0.64600003
-0.0086000003 0.039314289 0.64500004
-0.0073600006 0.039253335 0.64400005
-0.0061333338 0.039253335 0.64400005
-0.0049066669 0.039253335 0.64400005
-0.0036800003 0.039253335 0.64400005
-0.0024457143 0.039131429 0.64200002
-0.0012228572 0.039131429 0.64200002
0 0.03907048 0.64100003
0.0012209525 0.03907048 0.64100003
0.0024380954 0.039009526 0.64000005
0.0036571429 0.039009526 0.64000005
0.0048761908 0.039009526 0.64000005
0.0060952385 0.039009526 0.64000005
0.0073142857 0.039009526 0.64000005
0.0085333344 0.039009526 0.64000005
0.0097523816 0.039009526 0.64000005
0.010971429 0.039009526 0.64000005
0.012190477 0.039009526 0.64000005
0.013409524 0.039009526 0.64000005
0.014651429 0.03907048 0.64100003
0.015872382 0.03907048 0.64100003
0.017173335 0.039253335 0.64400005
0.0184 0.039253335 0.64400005
0.019657144 0.039314289 0.64500004
0.020885715 0.039314289 0.64500004
0.022148572 0.039375238 0.64600003
0.023415238 0.039436191 0.64700001
0.024685714 0.039497141 0.648
0.02592 0.039497141 0.648
0.027280001 0.03968 0.65100002
0.028520001 0.03968 0.65100002
0.029805716 0.039740954 0.65200001
0.031190475 0.039923809 0.65500003
0.032438096 0.039923809 0.65500003
-0.019900953 0.041045718 0.65300006
-0.018657144 0.041045718 0.65300006
-0.017413335 0.041045718 0.65300006
-0.016144762 0.040982857 0.65200001
-0.014902858 0.040982857 0.65200001
-0.01364 0.040920004 0.65100002
-0.0124 0.040920004 0.65100002
-0.011142857 0.040857144 0.65000004
-0.0098590478 0.04066857 0.64700001
-0.0086000003 0.04054286 0.64500004
-0.0073714294 0.04054286 0.64500004
-0.0061428575 0.04054286 0.64500004
-0.0049066669 0.040480006 0.64400005
-0.0036800003 0.040480006 0.64400005
-0.0024533335 0.040480006 0.64400005
-0.0012228572 0.040354285 0.64200002
0 0.040354285 0.64200002
0.0012228572 0.040354285 0.64200002
0.002441905 0.040291432 0.64100003
0.0036628572 0.040291432 0.64100003
0.0048761908 0.040228572 0.64000005
0.0060952385 0.040228572 0.64000005
0.0073142857 0.040228572 0.64000005
0.0085333344 0.040228572 0.64000005
0.0097523816 0.040228572 0.64000005
0.010971429 0.040228572 0.64000005
0.012190477 0.040228572 0.64000005
0.013430477 0.040291432 0.64100003
0.014674286 0.040354285 0.64200002
0.015897144 0.040354285 0.64200002
0.017173335 0.040480006 0.64400005
0.0184 0.040480006 0.64400005
0.019657144 0.04054286 0.64500004
0.020885715 0.04054286 0.64500004
0.022148572 0.040605716 0.64600003
0.023379048 0.040605716 0.64600003
0.024685714 0.04073143 0.648
0.026000001 0.040857144 0.65000004
0.027280001 0.040920004 0.65100002
0.028563811 0.040982857 0.65200001
0.029851429 0.041045718 0.65300006
0.031095238 0.041045718 0.65300006
0.032438096 0.041171432 0.65500003
-0.018714286 0.04241905 0.65500003
-0.017466666 0.04241905 0.65500003
-0.016169524 0.042289525 0.65300006
-0.014902858 0.042224765 0.65200001
-0.01364 0.042160001 0.65100002
-0.0124 0.042160001 0.65100002
-0.011142857 0.04209524 0.65000004
-0.0098742852 0.041965712 0.648
-0.008613334 0.041836191 0.64600003
-0.0073714294 0.041771431 0.64500004
-0.0061428575 0.041771431 0.64500004
-0.0049066669 0.04170667 0.64400005
-0.0036800003 0.04170667 0.64400005
-0.0024533335 0.04170667 0.64400005
-0.0012266667 0.04170667 0.64400005
0 0.041577145 0.64200002
0.0012228572 0.041577145 0.64200002
0.0024457143 0.041577145 0.64200002
0.0036685716 0.041577145 0.64200002
0.0048838099 0.041512381 0.64100003
0.0060952385 0.041447621 0.64000005
0.0073257145 0.041512381 0.64100003
0.0085466672 0.041512381 0.64100003
0.0097676199 0.041512381 0.64100003
0.010988572 0.041512381 0.64100003
0.012209524 0.041512381 0.64100003
0.013451429 0.041577145 0.64200002
0.014674286 0.041577145 0.64200002
0.015946668 0.04170667 0.64400005
0.017173335 0.04170667 0.64400005
0.018428572 0.041771431 0.64500004
0.019657144 0.041771431 0.64500004
0.020885715 0.041771431 0.64500004
0.022148572 0.041836191 0.64600003
0.023415238 0.041900955 0.64700001
0.024685714 0.041965712 0.648
0.026000001 0.04209524 0.65000004
0.027321905 0.042224765 0.65200001
0.02860762 0.042289525 0.65300006
0.029942859 0.04241905 0.65500003
0.031190475 0.04241905 0.65500003
-0.017466666 0.043666668 0.65500003
-0.016169524 0.043533336 0.65300006
-0.014925715 0.043533336 0.65300006
-0.013660952 0.043466665 0.65200001
-0.0124 0.043400001 0.65100002
-0.011142857 0.043333337 0.65000004
-0.0098742852 0.043200001 0.648
-0.008613334 0.043066666 0.64600003
-0.0073714294 0.043000001 0.64500004
-0.0061428575 0.043000001 0.64500004
-0.0049066669 0.042933334 0.64400005
-0.0036800003 0.042933334 0.64400005
-0.0024533335 0.042933334 0.64400005
-0.0012266667 0.042933334 0.64400005
0 0.042933334 0.64400005
0.0012228572 0.042800002 0.64200002
0.0024457143 0.042800002 0.64200002
0.0036685716 0.042800002 0.64200002
0.0048914286 0.042800002 0.64200002
0.0061047622 0.042733334 0.64100003
0.0073371432 0.042800002 0.64200002
0.00856 0.042800002 0.64200002
0.0097676199 0.042733334 0.64100003
0.010988572 0.042733334 0.64100003
0.012209524 0.042733334 0.64100003
0.013451429 0.042800002 0.64200002
0.014720001 0.042933334 0.64400005
0.015946668 0.042933334 0.64400005
0.017200001 0.043000001 0.64500004
0.018428572 0.043000001 0.64500004
0.019657144 0.043000001 0.64500004
0.020918095 0.043066666 0.64600003
0.022148572 0.043066666 0.64600003
0.023415238 0.043133333 0.64700001
0.024685714 0.043200001 0.648
0.026040001 0.043400001 0.65100002
0.027321905 0.043466665 0.65200001
0.02860762 0.043533336 0.65300006
0.029942859 0.043666668 0.65500003
0.031238094 0.043733336 0.65600002
0.03248762 0.043733336 0.65600002
-0.017466666 0.04491429 0.65500003
-0.016169524 0.044777144 0.65300006
-0.014925715 0.044777144 0.65300006
-0.013660952 0.044708572 0.65200001
-0.0124 0.044640001 0.65100002
-0.011142857 0.044571429 0.65000004
-0.0098742852 0.044434283 0.648
-0.0086266669 0.044365715 0.64700001
-0.0073828571 0.044297144 0.64600003
-0.0061428575 0.044228572 0.64500004
-0.0049142861 0.044228572 0.64500004
-0.0036800003 0.044160005 0.64400005
-0.0024533335 0.044160005 0.64400005
-0.0012266667 0.044160005 0.64400005
0 0.044160005 0.64400005
0.0012266667 0.044160005 0.64400005
0.0024457143 0.044022858 0.64200002
0.0036800003 0.044160005 0.64400005
0.0048914286 0.044022858 0.64200002
0.0061142859 0.044022858 0.64200002
0.0073600006 0.044160005 0.64400005
0.00856 0.044022858 0.64200002
0.0097828573 0.044022858 0.64200002
0.011005715 0.044022858 0.64200002
0.012228572 0.044022858 0.64200002
0.013451429 0.044022858 0.64200002
0.014720001 0.044160005 0.64400005
0.015946668 0.044160005 0.64400005
0.017200001 0.044228572 0.64500004
0.018428572 0.044228572 0.64500004
0.019657144 0.044228572 0.64500004
0.020918095 0.044297144 0.64600003
0.022148572 0.044297144 0.64600003
0.023415238 0.044365715 0.64700001
0.024761906 0.044571429 0.65000004
0.026040001 0.044640001 0.65100002
0.027363811 0.044777144 0.65300006
0.02860762 0.044777144 0.65300006
0.029942859 0.04491429 0.65500003
0.031190475 0.04491429 0.65500003
0.032438096 0.04491429 0.65500003
-0.018742858 0.046232384 0.65600002
-0.017466666 0.046161905 0.65500003
-0.016169524 0.046020955 0.65300006
-0.014925715 0.046020955 0.65300006
-0.013660952 0.045950476 0.65200001
-0.0124 0.045880005 0.65100002
-0.011142857 0.045809526 0.65000004
-0.0099047627 0.045809526 0.65000004
-0.0086266669 0.045598097 0.64700001
-0.0073828571 0.045527618 0.64600003
-0.0061523807 0.045527618 0.64600003
-0.0049142861 0.045457147 0.64500004
-0.0036857147 0.045457147 0.64500004
-0.0024533335 0.045386672 0.64400005
-0.0012266667 0.045386672 0.64400005
0 0.045386672 0.64400005
0.0012266667 0.045386672 0.64400005
0.0024457143 0.045245718 0.64200002
0.0036800003 0.045386672 0.64400005
0.0048914286 0.045245718 0.64200002
0.0061142859 0.045245718 0.64200002
0.0073371432 0.045245718 0.64200002
0.0085866675 0.045386672 0.64400005
0.0097828573 0.045245718 0.64200002
0.011005715 0.045245718 0.64200002
0.012228572 0.045245718 0.64200002
0.013493334 0.045386672 0.64400005
0.014720001 0.045386672 0.64400005
0.015946668 0.045386672 0.64400005
0.017173335 0.045386672 0.64400005
0.018428572 0.045457147 0.64500004
0.019687619 0.045527618 0.64600003
0.020918095 0.045527618 0.64600003
0.022182858 0.045598097 0.64700001
0.023451429 0.045668572 0.648
0.024761906 0.045809526 0.65000004
0.026080001 0.045950476 0.65200001
0.027363811 0.046020955 0.65300006
0.02860762 0.046020955 0.65300006
0.029942859 0.046161905 0.65500003
0.031190475 0.046161905 0.65500003
0.032438096 0.046161905 0.65500003
-0.018771429 0.047554284 0.65700001
-0.017493334 0.047481906 0.65600002
-0.016219048 0.047409527 0.65500003
-0.014971429 0.047409527 0.65500003
-0.013681905 0.047264766 0.65300006
-0.012419048 0.047192384 0.65200001
-0.01116 0.047120001 0.65100002
-0.0099047627 0.047047619 0.65000004
-0.0086400006 0.046902858 0.648
-0.0074057141 0.046902858 0.648
-0.0061619049 0.046830475 0.64700001
-0.0049219048 0.046758097 0.64600003
-0.0036857147 0.046685718 0.64500004
-0.002457143 0.046685718 0.64500004
-0.0012285715 0.046685718 0.64500004
0 0.046613336 0.64400005
0.0012266667 0.046613336 0.64400005
0.0024533335 0.046613336 0.64400005
0.0036800003 0.046613336 0.64400005
0.0049066669 0.046613336 0.64400005
0.0061333338 0.046613336 0.64400005
0.0073600006 0.046613336 0.64400005
0.0085866675 0.046613336 0.64400005
0.0098133339 0.046613336 0.64400005
0.011040001 0.046613336 0.64400005
0.012266668 0.046613336 0.64400005
0.013493334 0.046613336 0.64400005
0.014720001 0.046613336 0.64400005
0.01597143 0.046685718 0.64500004
0.017200001 0.046685718 0.64500004
0.018457144 0.046758097 0.64600003
0.019718096 0.046830475 0.64700001
0.020982856 0.046902858 0.648
0.022217141 0.046902858 0.648
0.023523809 0.047047619 0.65000004
0.024800001 0.047120001 0.65100002
0.026080001 0.047192384 0.65200001
0.02744762 0.047409527 0.65500003
0.028695239 0.047409527 0.65500003
0.029942859 0.047409527 0.65500003
0.031190475 0.047409527 0.65500003
-0.018742858 0.048731431 0.65600002
-0.017493334 0.048731431 0.65600002
-0.016219048 0.048657145 0.65500003
-0.014971429 0.048657145 0.65500003
-0.013681905 0.048508577 0.65300006
-0.012419048 0.048434284 0.65200001
-0.01116 0.048359998 0.65100002
-0.0099047627 0.048285719 0.65000004
-0.0086400006 0.04813714 0.648
-0.0074057141 0.04813714 0.648
-0.0061619049 0.048062857 0.64700001
-0.0049219048 0.047988571 0.64600003
-0.0036857147 0.047914285 0.64500004
-0.002457143 0.047914285 0.64500004
-0.0012285715 0.047914285 0.64500004
0 0.047914285 0.64500004
0.0012266667 0.047840003 0.64400005
0.0024533335 0.047840003 0.64400005
0.0036800003 0.047840003 0.64400005
0.0049066669 0.047840003 0.64400005
0.0061333338 0.047840003 0.64400005
0.0073600006 0.047840003 0.64400005
0.0085866675 0.047840003 0.64400005
0.0098133339 0.047840003 0.64400005
0.011040001 0.047840003 0.64400005
0.012266668 0.047840003 0.64400005
0.013493334 0.047840003 0.64400005
0.014742859 0.047914285 0.64500004
0.01597143 0.047914285 0.64500004
0.017226668 0.047988571 0.64600003
0.018485714 0.048062857 0.64700001
0.01974857 0.04813714 0.648
0.020982856 0.04813714 0.648
0.022217141 0.04813714 0.648
0.023523809 0.048285719 0.65000004
0.024800001 0.048359998 0.65100002
0.026120001 0.048508577 0.65300006
0.02744762 0.048657145 0.65500003
0.028739048 0.048731431 0.65600002
0.029988572 0.048731431 0.65600002
-0.020053335 0.050133336 0.65800005
-0.018742858 0.049980953 0.65600002
-0.017493334 0.049980953 0.65600002
-0.016219048 0.049904764 0.65500003
-0.014971429 0.049904764 0.65500003
-0.013681905 0.049752384 0.65300006
-0.012419048 0.049676191 0.65200001
-0.01116 0.049600001 0.65100002
-0.0099200001 0.049600001 0.65100002
-0.0086666672 0.049523812 0.65000004
-0.0074057141 0.049371429 0.648
-0.0061714286 0.049371429 0.648
-0.0049295239 0.049295239 0.64700001
-0.0036914286 0.049219046 0.64600003
-0.002457143 0.04914286 0.64500004
-0.0012285715 0.04914286 0.64500004
0 0.04914286 0.64500004
0.0012266667 0.04906667 0.64400005
0.0024533335 0.04906667 0.64400005
0.0036800003 0.04906667 0.64400005
0.0049066669 0.04906667 0.64400005
0.0061333338 0.04906667 0.64400005
0.0073600006 0.04906667 0.64400005
0.0085866675 0.04906667 0.64400005
0.0098133339 0.04906667 0.64400005
0.011040001 0.04906667 0.64400005
0.012266668 0.04906667 0.64400005
0.013514286 0.04914286 0.64500004
0.014742859 0.04914286 0.64500004
0.015996192 0.049219046 0.64600003
0.017253334 0.049295239 0.64700001
0.018514287 0.049371429 0.648
0.01974857 0.049371429 0.648
0.02104762 0.049523812 0.65000004
0.022285715 0.049523812 0.65000004
0.023560001 0.049600001 0.65100002
0.024800001 0.049600001 0.65100002
0.026120001 0.049752384 0.65300006
0.02744762 0.049904764 0.65500003
0.028782858 0.050057143 0.65700001
0.030034285 0.050057143 0.65700001
-0.020114286 0.05154286 0.66000003
-0.018771429 0.051308572 0.65700001
-0.017493334 0.051230475 0.65600002
-0.016219048 0.051152382 0.65500003
-0.014971429 0.051152382 0.65500003
-0.013681905 0.050996196 0.65300006
-0.012438096 0.050996196 0.65300006
-0.011177143 0.050918095 0.65200001
-0.0099200001 0.050840002 0.65100002
-0.0086666672 0.050761908 0.65000004
-0.0074285716 0.050761908 0.65000004
-0.0061714286 0.050605714 0.648
-0.0049295239 0.050527621 0.64700001
-0.0036914286 0.050449528 0.64600003
-0.0024609524 0.050449528 0.64600003
-0.0012285715 0.050371431 0.64500004
0 0.050371431 0.64500004
0.0012285715 0.050371431 0.64500004
0.0024533335 0.050293338 0.64400005
0.0036800003 0.050293338 0.64400005
0.0049142861 0.050371431 0.64500004
0.0061333338 0.050293338 0.64400005
0.0073714294 0.050371431 0.64500004
0.0086000003 0.050371431 0.64500004
0.0098285722 0.050371431 0.64500004
0.011057143 0.050371431 0.64500004
0.012285715 0.050371431 0.64500004
0.013514286 0.050371431 0.64500004
0.014765714 0.050449528 0.64600003
0.016020952 0.050527621 0.64700001
0.017253334 0.050527621 0.64700001
0.018514287 0.050605714 0.648
0.01974857 0.050605714 0.648
0.02104762 0.050761908 0.65000004
0.02232 0.050840002 0.65100002
0.023560001 0.050840002 0.65100002
0.024838096 0.050918095 0.65200001
0.026120001 0.050996196 0.65300006
0.02744762 0.051152382 0.65500003
0.028739048 0.051230475 0.65600002
0.029988572 0.051230475 0.65600002
-0.020114286 0.052800003 0.66000003
-0.018800002 0.052640002 0.65800005
-0.017519999 0.052559998 0.65700001
-0.016219048 0.052400004 0.65500003
-0.014971429 0.052400004 0.65500003
-0.013681905 0.052240003 0.65300006
-0.012438096 0.052240003 0.65300006
-0.011177143 0.052160002 0.65200001
-0.0099200001 0.052080002 0.65100002
-0.0086666672 0.052000001 0.65000004
-0.0074285716 0.052000001 0.65000004
-0.0061714286 0.05184 0.648
-0.0049371426 0.05184 0.648
-0.0036971427 0.051759999 0.64700001
-0.0024609524 0.051680002 0.64600003
-0.0012304762 0.051680002 0.64600003
0 0.051600002 0.64500004
0.0012285715 0.051600002 0.64500004
0.002457143 0.051600002 0.64500004
0.0036800003 0.051520005 0.64400005
0.0049066669 0.051520005 0.64400005
0.0061333338 0.051520005 0.64400005
0.0073714294 0.051600002 0.64500004
0.0086000003 0.051600002 0.64500004
0.0098285722 0.051600002 0.64500004
0.011057143 0.051600002 0.64500004
0.012285715 0.051600002 0.64500004
0.013535239 0.051680002 0.64600003
0.014788571 0.051759999 0.64700001
0.016020952 0.051759999 0.64700001
0.017280001 0.05184 0.648
0.018514287 0.05184 0.648
0.019809525 0.052000001 0.65000004
0.02104762 0.052000001 0.65000004
0.02232 0.052080002 0.65100002
0.023596192 0.052160002 0.65200001
0.024876192 0.052240003 0.65300006
0.026200002 0.052400004 0.65500003
0.02744762 0.052400004 0.65500003
0.028695239 0.052400004 0.65500003
0.029988572 0.052480001 0.65600002
-0.018771429 0.053811427 0.65700001
-0.017493334 0.053729523 0.65600002
-0.016219048 0.053647619 0.65500003
-0.014971429 0.053647619 0.65500003
-0.013681905 0.053483814 0.65300006
-0.012438096 0.053483814 0.65300006
-0.011177143 0.053401906 0.65200001
-0.0099200001 0.053319998 0.65100002
-0.0086666672 0.053238098 0.65000004
-0.0074285716 0.053238098 0.65000004
-0.0061714286 0.053074285 0.648
-0.0049371426 0.053074285 0.648
-0.0037028571 0.053074285 0.648
-0.002464762 0.052992381 0.64700001
-0.001232381 0.052992381 0.64700001
0 0.052910481 0.64600003
0.0012304762 0.052910481 0.64600003
0.002457143 0.052828576 0.64500004
0.0036857147 0.052828576 0.64500004
0.0049142861 0.052828576 0.64500004
0.0061428575 0.052828576 0.64500004
0.0073714294 0.052828576 0.64500004
0.0086000003 0.052828576 0.64500004
0.0098285722 0.052828576 0.64500004
0.011074286 0.052910481 0.64600003
0.012304761 0.052910481 0.64600003
0.013556191 0.052992381 0.64700001
0.014788571 0.052992381 0.64700001
0.016045714 0.053074285 0.648
0.017280001 0.053074285 0.648
0.018571431 0.053238098 0.65000004
0.019809525 0.053238098 0.65000004
0.02108 0.053319998 0.65100002
0.022354286 0.053401906 0.65200001
0.023596192 0.053401906 0.65200001
0.024876192 0.053483814 0.65300006
0.026200002 0.053647619 0.65500003
0.027489524 0.053729523 0.65600002
0.029045716 0.05430286 0.66300005
0.030308573 0.05430286 0.66300005
-0.018800002 0.055146668 0.65800005
-0.017519999 0.055062857 0.65700001
-0.01624381 0.054979049 0.65600002
-0.014971429 0.054895241 0.65500003
-0.01372381 0.054895241 0.65500003
-0.012438096 0.054727621 0.65300006
-0.011194286 0.054727621 0.65300006
-0.0099352384 0.05464381 0.65200001
-0.00868 0.054560002 0.65100002
-0.0074285716 0.054476194 0.65000004
-0.0061904765 0.054476194 0.65000004
-0.0049371426 0.054308575 0.648
-0.0037028571 0.054308575 0.648
-0.0024685713 0.054308575 0.648
-0.001232381 0.054224763 0.64700001
0 0.054224763 0.64700001
0.0012304762 0.054140955 0.64600003
0.002457143 0.054057144 0.64500004
0.0036857147 0.054057144 0.64500004
0.0049142861 0.054057144 0.64500004
0.0061428575 0.054057144 0.64500004
0.0073828571 0.054140955 0.64600003
0.008613334 0.054140955 0.64600003
0.0098438095 0.054140955 0.64600003
0.011091429 0.054224763 0.64700001
0.01232381 0.054224763 0.64700001
0.013556191 0.054224763 0.64700001
0.014811428 0.054308575 0.648
0.016045714 0.054308575 0.648
0.017333334 0.054476194 0.65000004
0.018571431 0.054476194 0.65000004
0.01984 0.054560002 0.65100002
0.02108 0.054560002 0.65100002
0.022354286 0.05464381 0.65200001
0.023632383 0.054727621 0.65300006
0.024952382 0.054895241 0.65500003
0.026240001 0.054979049 0.65600002
0.027866667 0.055733334 0.66500002
0.029133333 0.055733334 0.66500002
0.030445714 0.055817142 0.66600001
0.031761907 0.055900957 0.66700006
0.033032384 0.055900957 0.66700006
0.034302857 0.055900957 0.66700006
-0.018857144 0.056571428 0.66000003
-0.017546669 0.056400005 0.65800005
-0.01624381 0.056228571 0.65600002
-0.014971429 0.056142859 0.65500003
-0.01372381 0.056142859 0.65500003
-0.012438096 0.055971432 0.65300006
-0.011194286 0.055971432 0.65300006
-0.0099352384 0.055885714 0.65200001
-0.00868 0.055800002 0.65100002
-0.0074400003 0.055800002 0.65100002
-0.0061904765 0.055714291 0.65000004
-0.0049523814 0.055714291 0.65000004
-0.0037028571 0.055542856 0.648
-0.0024685713 0.055542856 0.648
-0.0012342856 0.055542856 0.648
0 0.055457141 0.64700001
0.001232381 0.055457141 0.64700001
0.0024609524 0.05537143 0.64600003
0.0036914286 0.05537143 0.64600003
0.0049219048 0.05537143 0.64600003
0.0061523807 0.05537143 0.64600003
0.0073828571 0.05537143 0.64600003
0.0086266669 0.055457141 0.64700001
0.0098590478 0.055457141 0.64700001
0.011091429 0.055457141 0.64700001
0.01232381 0.055457141 0.64700001
0.013577144 0.055542856 0.648
0.014811428 0.055542856 0.648
0.016045714 0.055542856 0.648
0.017333334 0.055714291 0.65000004
0.018571431 0.055714291 0.65000004
0.01984 0.055800002 0.65100002
0.021112382 0.055885714 0.65200001
0.022388572 0.055971432 0.65300006
0.023632383 0.055971432 0.65300006
0.024952382 0.056142859 0.65500003
0.026240001 0.056228571 0.65600002
0.027740953 0.056742862 0.66200006
0.029045716 0.056828577 0.66300005
0.030400002 0.057 0.66500002
0.031714283 0.057085715 0.66600001
0.032982856 0.057085715 0.66600001
-0.018885715 0.05791619 0.66100001
-0.017600002 0.057828572 0.66000003
-0.016268572 0.057565715 0.65700001
-0.014994286 0.057478096 0.65600002
-0.01372381 0.057390478 0.65500003
-0.012476191 0.057390478 0.65500003
-0.011194286 0.05721524 0.65300006
-0.0099504767 0.05721524 0.65300006
-0.0086933337 0.057127621 0.65200001
-0.0074400003 0.057040002 0.65100002
-0.0061904765 0.056952383 0.65000004
-0.0049523814 0.056952383 0.65000004
-0.0037142858 0.056952383 0.65000004
-0.0024685713 0.056777142 0.648
-0.0012342856 0.056777142 0.648
0 0.056777142 0.648
0.001232381 0.056689527 0.64700001
0.002464762 0.056689527 0.64700001
0.0036971427 0.056689527 0.64700001
0.0049219048 0.056601908 0.64600003
0.0061619049 0.056689527 0.64700001
0.0073942854 0.056689527 0.64700001
0.0086266669 0.056689527 0.64700001
0.0098590478 0.056689527 0.64700001
0.011091429 0.056689527 0.64700001
0.012342857 0.056777142 0.648
0.013577144 0.056777142 0.648
0.014811428 0.056777142 0.648
0.016045714 0.056777142 0.648
0.017333334 0.056952383 0.65000004
0.018571431 0.056952383 0.65000004
0.01984 0.057040002 0.65100002
0.02108 0.057040002 0.65100002
0.022388572 0.05721524 0.65300006
0.023632383 0.05721524 0.65300006
0.024952382 0.057390478 0.65500003
0.026240001 0.057478096 0.65600002
0.027489524 0.057478096 0.65600002
0.029133333 0.058266666 0.66500002
0.030445714 0.058354285 0.66600001
-0.018914288 0.059264764 0.66200006
-0.017600002 0.059085716 0.66000003
-0.016293336 0.058906671 0.65800005
-0.015017143 0.058817141 0.65700001
-0.013744762 0.058727618 0.65600002
-0.012476191 0.0586381 0.65500003
-0.011228573 0.0586381 0.65500003
-0.0099504767 0.058459051 0.65300006
-0.0086933337 0.058369525 0.65200001
-0.0074400003 0.058279999 0.65100002
-0.0062000002 0.058279999 0.65100002
-0.0049523814 0.058190476 0.65000004
-0.0037142858 0.058190476 0.65000004
-0.0024761907 0.058190476 0.65000004
-0.0012380953 0.058190476 0.65000004
0 0.058011428 0.648
0.0012342856 0.058011428 0.648
0.0024685713 0.058011428 0.648
0.0037028571 0.058011428 0.648
0.0049371426 0.058011428 0.648
0.0061714286 0.058011428 0.648
0.0074057141 0.058011428 0.648
0.0086400006 0.058011428 0.648
0.0098742852 0.058011428 0.648
0.011108571 0.058011428 0.648
0.012342857 0.058011428 0.648
0.013577144 0.058011428 0.648
0.014811428 0.058011428 0.648
0.01609524 0.058190476 0.65000004
0.017333334 0.058190476 0.65000004
0.0186 0.058279999 0.65100002
0.019870477 0.058369525 0.65200001
0.021144763 0.058459051 0.65300006
0.022388572 0.058459051 0.65300006
0.023704764 0.0586381 0.65500003
0.024990477 0.058727618 0.65600002
0.026320001 0.058906671 0.65800005
0.027866667 0.059533335 0.66500002
0.029133333 0.059533335 0.66500002
0.030445714 0.059622858 0.66600001
-0.018914288 0.060525719 0.66200006
-0.017600002 0.060342856 0.66000003
-0.016293336 0.060160007 0.65800005
-0.015017143 0.06006857 0.65700001
-0.013744762 0.059977144 0.65600002
-0.012495238 0.059977144 0.65600002
-0.011228573 0.059885718 0.65500003
-0.0099504767 0.059702858 0.65300006
-0.0087066675 0.059702858 0.65300006
-0.007451429 0.059611432 0.65200001
-0.0062000002 0.059520002 0.65100002
-0.00496 0.059520002 0.65100002
-0.0037200002 0.059520002 0.65100002
-0.0024761907 0.059428573 0.65000004
-0.0012380953 0.059428573 0.65000004
0 0.059428573 0.65000004
0.0012380953 0.059428573 0.65000004
0.0024761907 0.059428573 0.65000004
0.0037028571 0.059245713 0.648
0.0049371426 0.059245713 0.648
0.0061714286 0.059245713 0.648
0.0074057141 0.059245713 0.648
0.0086400006 0.059245713 0.648
0.0098742852 0.059245713 0.648
0.011108571 0.059245713 0.648
0.012342857 0.059245713 0.648
0.013577144 0.059245713 0.648
0.014857143 0.059428573 0.65000004
0.01609524 0.059428573 0.65000004
0.01736 0.059520002 0.65100002
0.0186 0.059520002 0.65100002
0.019870477 0.059611432 0.65200001
0.021144763 0.059702858 0.65300006
0.022457145 0.059885718 0.65500003
0.023704764 0.059885718 0.65500003
0.024990477 0.059977144 0.65600002
0.026320001 0.060160007 0.65800005
0.027782859 0.060617145 0.66300005
0.029133333 0.060800005 0.66500002
0.030445714 0.060891427 0.66600001
-0.018885715 0.061693333 0.66100001
-0.017600002 0.0616 0.66000003
-0.016293336 0.06141334 0.65800005
-0.015017143 0.061319999 0.65700001
-0.013744762 0.06122667 0.65600002
-0.012495238 0.06122667 0.65600002
-0.011228573 0.061133336 0.65500003
-0.0099809524 0.061133336 0.65500003
-0.0087066675 0.060946673 0.65300006
-0.0074628573 0.060946673 0.65300006
-0.0062095239 0.060853332 0.65200001
-0.0049676192 0.060853332 0.65200001
-0.0037200002 0.060760003 0.65100002
-0.00248 0.060760003 0.65100002
-0.0012380953 0.060666669 0.65000004
0 0.060666669 0.65000004
0.0012380953 0.060666669 0.65000004
0.0024761907 0.060666669 0.65000004
0.0037142858 0.060666669 0.65000004
0.0049371426 0.060480002 0.648
0.0061714286 0.060480002 0.648
0.0074057141 0.060480002 0.648
0.0086400006 0.060480002 0.648
0.0098742852 0.060480002 0.648
0.011108571 0.060480002 0.648
0.012342857 0.060480002 0.648
0.013577144 0.060480002 0.648
0.014857143 0.060666669 0.65000004
0.01609524 0.060666669 0.65000004
0.01736 0.060760003 0.65100002
0.0186 0.060760003 0.65100002
0.019870477 0.060853332 0.65200001
0.021144763 0.060946673 0.65300006
0.022457145 0.061133336 0.65500003
0.023740953 0.06122667 0.65600002
0.025028571 0.061319999 0.65700001
0.026400002 0.0616 0.66000003
0.027866667 0.062066671 0.66500002
0.029133333 0.062066671 0.66500002
0.030445714 0.062159996 0.66600001
-0.018942859 0.063142858 0.66300005
-0.017600002 0.062857144 0.66000003
-0.016342856 0.062857144 0.66000003
-0.015040002 0.062666669 0.65800005
-0.013765714 0.062571429 0.65700001
-0.012495238 0.062476188 0.65600002
-0.011245715 0.062476188 0.65600002
-0.0099809524 0.062380951 0.65500003
-0.0087066675 0.062190477 0.65300006
-0.0074628573 0.062190477 0.65300006
-0.0062190481 0.062190477 0.65300006
-0.0049676192 0.062095243 0.65200001
-0.0037257145 0.062095243 0.65200001
-0.00248 0.062000006 0.65100002
-0.00124 0.062000006 0.65100002
0 0.061904762 0.65000004
0.0012380953 0.061904762 0.65000004
0.0024761907 0.061904762 0.65000004
0.0037142858 0.061904762 0.65000004
0.0049523814 0.061904762 0.65000004
0.0061904765 0.061904762 0.65000004
0.0074285716 0.061904762 0.65000004
0.0086666672 0.061904762 0.65000004
0.0099047627 0.061904762 0.65000004
0.011108571 0.061714288 0.648
0.012342857 0.061714288 0.648
0.013619049 0.061904762 0.65000004
0.014857143 0.061904762 0.65000004
0.01612 0.062000006 0.65100002
0.01736 0.062000006 0.65100002
0.018628571 0.062095243 0.65200001
0.019900953 0.062190477 0.65300006
0.021209525 0.062380951 0.65500003
0.022457145 0.062380951 0.65500003
0.023740953 0.062476188 0.65600002
0.025066668 0.062666669 0.65800005
0.026400002 0.062857144 0.66000003
0.027782859 0.063142858 0.66300005
0.029045716 0.063142858 0.66300005
0.030445714 0.063428566 0.66600001
-0.02032762 0.064794287 0.66700006
-0.019000001 0.064599998 0.66500002
-0.017626666 0.064211436 0.66100001
-0.01636762 0.064211436 0.66100001
-0.015085714 0.064114287 0.66000003
-0.013786667 0.063920006 0.65800005
-0.012514286 0.063822858 0.65700001
-0.011245715 0.063725717 0.65600002
-0.0099809524 0.063628577 0.65500003
-0.0087333331 0.063628577 0.65500003
-0.0074628573 0.063434288 0.65300006
-0.0062190481 0.063434288 0.65300006
-0.0049752383 0.063434288 0.65300006
-0.0037257145 0.06333714 0.65200001
-0.0024838096 0.06333714 0.65200001
-0.00124 0.063239999 0.65100002
0 0.063142858 0.65000004
0.0012380953 0.063142858 0.65000004
0.0024761907 0.063142858 0.65000004
0.0037142858 0.063142858 0.65000004
0.0049523814 0.063142858 0.65000004
0.0061904765 0.063142858 0.65000004
0.0074285716 0.063142858 0.65000004
0.0086666672 0.063142858 0.65000004
0.0099047627 0.063142858 0.65000004
0.011142857 0.063142858 0.65000004
0.012342857 0.06294857 0.648
0.013619049 0.063142858 0.65000004
0.014857143 0.063142858 0.65000004
0.01612 0.063239999 0.65100002
0.01736 0.063239999 0.65100002
0.018657144 0.063434288 0.65300006
0.019900953 0.063434288 0.65300006
0.021209525 0.063628577 0.65500003
0.022491429 0.063725717 0.65600002
0.023777142 0.063822858 0.65700001
0.025066668 0.063920006 0.65800005
0.026400002 0.064114287 0.66000003
0.027782859 0.064405717 0.66300005
0.029045716 0.064405717 0.66300005
0.030400002 0.064599998 0.66500002
-0.021727618 0.066460945 0.671
-0.02032762 0.066064768 0.66700006
-0.019028571 0.065965712 0.66600001
-0.017680001 0.065668575 0.66300005
-0.01636762 0.065470479 0.66100001
-0.015085714 0.065371424 0.66000003
-0.013786667 0.065173343 0.65800005
-0.012514286 0.065074287 0.65700001
-0.011245715 0.064975239 0.65600002
-0.0099809524 0.064876191 0.65500003
-0.0087333331 0.064876191 0.65500003
-0.0074857147 0.064876191 0.65500003
-0.0062190481 0.064678095 0.65300006
-0.0049752383 0.064678095 0.65300006
-0.0037314286 0.064678095 0.65300006
-0.0024838096 0.064579047 0.65200001
-0.00124 0.064479999 0.65100002
0 0.064479999 0.65100002
0.0012380953 0.064380959 0.65000004
0.00248 0.064479999 0.65100002
0.0037142858 0.064380959 0.65000004
0.0049523814 0.064380959 0.65000004
0.0061904765 0.064380959 0.65000004
0.0074285716 0.064380959 0.65000004
0.0086666672 0.064380959 0.65000004
0.0099047627 0.064380959 0.65000004
0.011142857 0.064380959 0.65000004
0.012380953 0.064380959 0.65000004
0.013619049 0.064380959 0.65000004
0.014880001 0.064479999 0.65100002
0.016144762 0.064579047 0.65200001
0.017386667 0.064579047 0.65200001
0.018657144 0.064678095 0.65300006
0.019900953 0.064678095 0.65300006
0.021209525 0.064876191 0.65500003
0.022491429 0.064975239 0.65600002
0.023777142 0.065074287 0.65700001
0.025142858 0.065371424 0.66000003
0.02644 0.065470479 0.66100001
0.027782859 0.065668575 0.66300005
0.029045716 0.065668575 0.66300005
0.030400002 0.065866672 0.66500002
0.031714283 0.065965712 0.66600001
-0.021727618 0.067739047 0.671
-0.02032762 0.067335241 0.66700006
-0.019028571 0.067234285 0.66600001
-0.017733334 0.067133337 0.66500002
-0.016392382 0.066830479 0.66200006
-0.015108571 0.066729523 0.66100001
-0.013786667 0.066426672 0.65800005
-0.012514286 0.066325709 0.65700001
-0.011245715 0.066224761 0.65600002
-0.0099961907 0.066224761 0.65600002
-0.0087333331 0.066123806 0.65500003
-0.0074857147 0.066123806 0.65500003
-0.0062380955 0.066123806 0.65500003
-0.0049752383 0.065921903 0.65300006
-0.0037314286 0.065921903 0.65300006
-0.0024876192 0.065921903 0.65300006
-0.0012419048 0.065820955 0.65200001
0 0.065720007 0.65100002
0.00124 0.065720007 0.65100002
0.00248 0.065720007 0.65100002
0.0037200002 0.065720007 0.65100002
0.0049523814 0.065619051 0.65000004
0.0061904765 0.065619051 0.65000004
0.0074285716 0.065619051 0.65000004
0.00868 0.065720007 0.65100002
0.0099200001 0.065720007 0.65100002
0.011142857 0.065619051 0.65000004
0.012380953 0.065619051 0.65000004
0.01364 0.065720007 0.65100002
0.014880001 0.065720007 0.65100002
0.016144762 0.065820955 0.65200001
0.017413335 0.065921903 0.65300006
0.018657144 0.065921903 0.65300006
0.019961905 0.066123806 0.65500003
0.021209525 0.066123806 0.65500003
0.022491429 0.066224761 0.65600002
0.023813335 0.066426672 0.65800005
0.025142858 0.066628568 0.66000003
0.02644 0.066729523 0.66100001
0.027866667 0.067133337 0.66500002
0.029133333 0.067133337 0.66500002
0.030445714 0.067234285 0.66600001
-0.021727618 0.069017142 0.671
-0.020388572 0.068811432 0.66900003
-0.019057145 0.068605714 0.66700006
-0.017760001 0.068502858 0.66600001
-0.016417144 0.068194285 0.66300005
-0.01513143 0.068091437 0.66200006
-0.013828572 0.067885719 0.66000003
-0.012533334 0.067680001 0.65800005
-0.011262857 0.067577146 0.65700001
-0.010011429 0.067577146 0.65700001
-0.0087466668 0.067474283 0.65600002
-0.0074857147 0.067371435 0.65500003
-0.0062380955 0.067371435 0.65500003
-0.0049904762 0.067371435 0.65500003
-0.0037314286 0.067165725 0.65300006
-0.0024876192 0.067165725 0.65300006
-0.0012438096 0.067165725 0.65300006
0 0.067062855 0.65200001
0.0012419048 0.067062855 0.65200001
0.0024838096 0.067062855 0.65200001
0.0037200002 0.06696 0.65100002
0.00496 0.06696 0.65100002
0.0062000002 0.06696 0.65100002
0.0074400003 0.06696 0.65100002
0.00868 0.06696 0.65100002
0.0099200001 0.06696 0.65100002
0.01116 0.06696 0.65100002
0.0124 0.06696 0.65100002
0.013660952 0.067062855 0.65200001
0.014902858 0.067062855 0.65200001
0.016169524 0.067165725 0.65300006
0.017413335 0.067165725 0.65300006
0.018714286 0.067371435 0.65500003
0.019961905 0.067371435 0.65500003
0.021241905 0.067474283 0.65600002
0.022525715 0.067577146 0.65700001
0.023813335 0.067680001 0.65800005
0.025142858 0.067885719 0.66000003
0.02644 0.067988575 0.66100001
0.027908571 0.068502858 0.66600001
0.029133333 0.068399996 0.66500002
0.030445714 0.068502858 0.66600001
-0.021727618 0.070295237 0.671
-0.020388572 0.070085719 0.66900003
-0.019057145 0.069876194 0.66700006
-0.017760001 0.069771431 0.66600001
-0.016466668 0.069666669 0.66500002
-0.015154286 0.069457151 0.66300005
-0.013849524 0.069247618 0.66100001
-0.012571429 0.069142863 0.66000003
-0.01128 0.068933338 0.65800005
-0.010026667 0.068933338 0.65800005
-0.0087599996 0.068828575 0.65700001
-0.007497143 0.068723813 0.65600002
-0.0062476192 0.068723813 0.65600002
-0.0049904762 0.06861905 0.65500003
-0.0037428574 0.06861905 0.65500003
-0.0024952381 0.06861905 0.65500003
-0.0012438096 0.068409532 0.65300006
0 0.068409532 0.65300006
0.0012419048 0.068304762 0.65200001
0.0024838096 0.068304762 0.65200001
0.0037257145 0.068304762 0.65200001
0.00496 0.0682 0.65100002
0.0062000002 0.0682 0.65100002
0.007451429 0.068304762 0.65200001
0.0086933337 0.068304762 0.65200001
0.0099352384 0.068304762 0.65200001
0.011177143 0.068304762 0.65200001
0.012419048 0.068304762 0.65200001
0.013660952 0.068304762 0.65200001
0.014925715 0.068409532 0.65300006
0.016169524 0.068409532 0.65300006
0.017466666 0.06861905 0.65500003
0.018714286 0.06861905 0.65500003
0.019992381 0.068723813 0.65600002
0.021274285 0.068828575 0.65700001
0.02256 0.068933338 0.65800005
0.023885716 0.069142863 0.66000003
0.025180953 0.069247618 0.66100001
0.026520003 0.069457151 0.66300005
0.027908571 0.069771431 0.66600001
0.029177142 0.069771431 0.66600001
0.03049143 0.069876194 0.66700006
-0.021727618 0.071573332 0.671
-0.020419048 0.071466669 0.67000002
-0.019114288 0.071359999 0.66900003
-0.017786669 0.071146674 0.66700006
-0.016491428 0.071040004 0.66600001
-0.015200001 0.070933335 0.66500002
-0.013870477 0.07061334 0.66200006
-0.012590476 0.070506662 0.66100001
-0.011314286 0.070400007 0.66000003
-0.010026667 0.070186675 0.65800005
-0.0087733343 0.070186675 0.65800005
-0.0075085713 0.070079997 0.65700001
-0.0062476192 0.069973335 0.65600002
-0.0049980953 0.069973335 0.65600002
-0.0037428574 0.069866665 0.65500003
-0.0024952381 0.069866665 0.65500003
-0.0012438096 0.06965334 0.65300006
0 0.06965334 0.65300006
0.0012438096 0.06965334 0.65300006
0.0024876192 0.06965334 0.65300006
0.0037314286 0.06965334 0.65300006
0.0049752383 0.06965334 0.65300006
0.0062190481 0.06965334 0.65300006
0.0074628573 0.06965334 0.65300006
0.0087066675 0.06965334 0.65300006
0.0099504767 0.06965334 0.65300006
0.011194286 0.06965334 0.65300006
0.012438096 0.06965334 0.65300006
0.013681905 0.06965334 0.65300006
0.014925715 0.06965334 0.65300006
0.016219048 0.069866665 0.65500003
0.017466666 0.069866665 0.65500003
0.018742858 0.069973335 0.65600002
0.020022858 0.070079997 0.65700001
0.021306667 0.070186675 0.65800005
0.022628572 0.070400007 0.66000003
0.023885716 0.070400007 0.66000003
0.025219051 0.07061334 0.66200006
0.026520003 0.070720002 0.66300005
0.027908571 0.071040004 0.66600001
0.029177142 0.071040004 0.66600001
-0.021727618 0.072851434 0.671
-0.020388572 0.072634295 0.66900003
-0.019057145 0.072417155 0.66700006
-0.017760001 0.072308578 0.66600001
-0.016466668 0.072200008 0.66500002
-0.015200001 0.072200008 0.66500002
-0.01389143 0.071982868 0.66300005
-0.012609526 0.071874291 0.66200006
-0.011314286 0.071657151 0.66000003
-0.010057143 0.071657151 0.66000003
-0.0087733343 0.071440004 0.65800005
-0.0075085713 0.071331434 0.65700001
-0.0062571429 0.071331434 0.65700001
-0.0049980953 0.071222864 0.65600002
-0.0037485715 0.071222864 0.65600002
-0.0024952381 0.071114287 0.65500003
-0.001247619 0.071114287 0.65500003
0 0.071114287 0.65500003
0.0012438096 0.070897147 0.65300006
0.0024876192 0.070897147 0.65300006
0.0037314286 0.070897147 0.65300006
0.0049752383 0.070897147 0.65300006
0.0062190481 0.070897147 0.65300006
0.0074628573 0.070897147 0.65300006
0.0087066675 0.070897147 0.65300006
0.0099504767 0.070897147 0.65300006
0.011194286 0.070897147 0.65300006
0.012438096 0.070897147 0.65300006
0.01372381 0.071114287 0.65500003
0.014971429 0.071114287 0.65500003
0.016219048 0.071114287 0.65500003
0.017493334 0.071222864 0.65600002
0.018771429 0.071331434 0.65700001
0.020022858 0.071331434 0.65700001
0.021306667 0.071440004 0.65800005
0.022628572 0.071657151 0.66000003
0.023921905 0.071765721 0.66100001
0.025257144 0.071982868 0.66300005
0.0266 0.072200008 0.66500002
0.027908571 0.072308578 0.66600001
0.029177142 0.072308578 0.66600001
-0.021727618 0.074129522 0.671
-0.020388572 0.073908575 0.66900003
-0.019057145 0.073687628 0.66700006
-0.017760001 0.073577143 0.66600001
-0.016491428 0.073577143 0.66600001
-0.015200001 0.073466666 0.66500002
-0.01389143 0.073245719 0.66300005
-0.012609526 0.073135242 0.66200006
-0.011331429 0.073024765 0.66100001
-0.010057143 0.072914287 0.66000003
-0.0087733343 0.072693333 0.65800005
-0.0075200009 0.072693333 0.65800005
-0.0062571429 0.072582856 0.65700001
-0.0050057145 0.072582856 0.65700001
-0.0037485715 0.072472379 0.65600002
-0.0024952381 0.072361909 0.65500003
-0.001247619 0.072361909 0.65500003
0 0.072361909 0.65500003
0.0012438096 0.072140962 0.65300006
0.0024876192 0.072140962 0.65300006
0.0037314286 0.072140962 0.65300006
0.0049752383 0.072140962 0.65300006
0.0062190481 0.072140962 0.65300006
0.0074628573 0.072140962 0.65300006
0.0087066675 0.072140962 0.65300006
0.0099809524 0.072361909 0.65500003
0.011194286 0.072140962 0.65300006
0.012476191 0.072361909 0.65500003
0.01372381 0.072361909 0.65500003
0.014971429 0.072361909 0.65500003
0.01624381 0.072472379 0.65600002
0.017519999 0.072582856 0.65700001
0.018771429 0.072582856 0.65700001
0.020053335 0.072693333 0.65800005
0.021306667 0.072693333 0.65800005
0.022628572 0.072914287 0.66000003
0.023921905 0.073024765 0.66100001
0.025333334 0.073466666 0.66500002
0.0266 0.073466666 0.66500002
0.027908571 0.073577143 0.66600001
0.029220955 0.073687628 0.66700006
-0.020419048 0.07529524 0.67000002
-0.019114288 0.075182855 0.66900003
-0.017786669 0.074958101 0.66700006
-0.016491428 0.074845709 0.66600001
-0.015200001 0.074733332 0.66500002
-0.01389143 0.074508578 0.66300005
-0.012609526 0.074396193 0.66200006
-0.011331429 0.074283808 0.66100001
-0.010057143 0.074171431 0.66000003
-0.0088000009 0.074171431 0.66000003
-0.0075200009 0.07394667 0.65800005
-0.006266667 0.07394667 0.65800005
-0.0050057145 0.073834285 0.65700001
-0.0037485715 0.073721908 0.65600002
-0.0024990477 0.073721908 0.65600002
-0.001247619 0.073609523 0.65500003
0 0.073609523 0.65500003
0.001247619 0.073609523 0.65500003
0.0024952381 0.073609523 0.65500003
0.0037428574 0.073609523 0.65500003
0.0049904762 0.073609523 0.65500003
0.0062380955 0.073609523 0.65500003
0.0074857147 0.073609523 0.65500003
0.0087333331 0.073609523 0.65500003
0.0099809524 0.073609523 0.65500003
0.011228573 0.073609523 0.65500003
0.012476191 0.073609523 0.65500003
0.01372381 0.073609523 0.65500003
0.014971429 0.073609523 0.65500003
0.01624381 0.073721908 0.65600002
0.017519999 0.073834285 0.65700001
0.018771429 0.073834285 0.65700001
0.020053335 0.07394667 0.65800005
0.021306667 0.07394667 0.65800005
0.022628572 0.074171431 0.66000003
0.023958096 0.074396193 0.66200006
0.025333334 0.074733332 0.66500002
0.02664 0.074845709 0.66600001
0.027908571 0.074845709 0.66600001
0.029220955 0.074958101 0.66700006
-0.020419048 0.076571427 0.67000002
-0.019114288 0.07645715 0.66900003
-0.017786669 0.076228581 0.66700006
-0.016491428 0.076114282 0.66600001
-0.015222857 0.076114282 0.66600001
-0.013933334 0.076000005 0.66500002
-0.012609526 0.075657152 0.66200006
-0.011331429 0.07554286 0.66100001
-0.010072381 0.07554286 0.66100001
-0.0088000009 0.075428575 0.66000003
-0.0075200009 0.075200006 0.65800005
-0.006266667 0.075200006 0.65800005
-0.0050133336 0.075200006 0.65800005
-0.0037542856 0.075085714 0.65700001
-0.0024990477 0.07497143 0.65600002
-0.0012495238 0.07497143 0.65600002
0 0.074857146 0.65500003
0.001247619 0.074857146 0.65500003
0.0024952381 0.074857146 0.65500003
0.0037428574 0.074857146 0.65500003
0.0049904762 0.074857146 0.65500003
0.0062380955 0.074857146 0.65500003
0.0074857147 0.074857146 0.65500003
0.0087333331 0.074857146 0.65500003
0.0099809524 0.074857146 0.65500003
0.011228573 0.074857146 0.65500003
0.012476191 0.074857146 0.65500003
0.013744762 0.07497143 0.65600002
0.014994286 0.07497143 0.65600002
0.016268572 0.075085714 0.65700001
0.017546669 0.075200006 0.65800005
0.018800002 0.075200006 0.65800005
0.020053335 0.075200006 0.65800005
0.021371428 0.075428575 0.66000003
0.022662858 0.07554286 0.66100001
0.023958096 0.075657152 0.66200006
0.025333334 0.076000005 0.66500002
0.0266 0.076000005 0.66500002
0.027908571 0.076114282 0.66600001
0.029220955 0.076228581 0.66700006
0.03049143 0.076228581 0.66700006
-0.020480001 0.078080006 0.67200005
-0.019142857 0.077847622 0.67000002
-0.01784 0.077731431 0.66900003
-0.016516192 0.077499054 0.66700006
-0.015222857 0.077382855 0.66600001
-0.013933334 0.077266671 0.66500002
-0.012628572 0.077034295 0.66300005
-0.011348573 0.076918103 0.66200006
-0.010072381 0.076801904 0.66100001
-0.0088000009 0.076685719 0.66000003
-0.0075200009 0.076453343 0.65800005
-0.006266667 0.076453343 0.65800005
-0.0050133336 0.076453343 0.65800005
-0.0037542856 0.076337144 0.65700001
-0.0024990477 0.076220959 0.65600002
-0.0012495238 0.076220959 0.65600002
0 0.076220959 0.65600002
0.001247619 0.076104768 0.65500003
0.0024952381 0.076104768 0.65500003
0.0037428574 0.076104768 0.65500003
0.0049904762 0.076104768 0.65500003
0.0062380955 0.076104768 0.65500003
0.0074857147 0.076104768 0.65500003
0.0087333331 0.076104768 0.65500003
